# 3D point list with one line of data per point:
#   POINT3D_ID, X, Y, Z, R, G, B, ERROR, TRACK[] as (IMAGE_ID, POINT2D_IDX)
# Number of points: 290, mean track length: 6.778460257144344
20604 -14.460639645971211 2.8550012194748429 2.4594688725127107 12 3 3 1.9432107735532833 96 911 94 959 76 1548 22 1931 23 1422 77 1072 79 1003 75 1079 80 1673 81 1240 26 1809 74 1054 21 1023 85 1135 68 923 83 916 73 984
21993 -16.815815967173947 1.9277833239797231 5.2052384032637047 37 24 24 1.5282822816935984 96 122 76 552 77 478 23 491
20606 -13.899542877812536 2.8610961834803881 4.3129766090628907 64 47 44 1.4218139309157702 99 2197 42 1254 96 906 76 1561 75 2300 22 1943 23 1658 79 1712 74 1345 21 1044 40 876 30 1455 18 875 20 989 73 1233 19 614
21269 -2.8888201322238487 1.2357212401749105 5.7087249393305024 33 32 31 1.794320732082012 42 1866 16 1690 41 1559 69 1545 15 1520 70 808 68 1461 94 1517 95 1901
20616 -3.7535284835274942 2.0176260217292232 3.4274884952967892 83 76 74 1.9304684690298759 95 1393 42 1312 41 988 79 1810 80 1416 24 1461 81 1338 74 1107 21 804 86 1090 40 795 93 756 82 341 91 760
20617 -3.7147541464457929 2.0235498343164067 3.4615405560204682 81 73 71 1.4468484945945703 95 1144 42 1314 96 1106 43 1130 41 818 76 1650 40 612 93 597 91 552 37 1604 90 1221 88 1486 38 778
22299 2.632961522808575 3.4255209495004086 15.899334266238247 50 44 33 2.1720147081856584 12 1055 16 964
20618 -3.9198460094133063 2.056923845682133 3.0867482073707344 30 23 21 1.5605457158437754 95 1394 42 1316 96 977 43 973 94 1015 41 821 76 1343 16 673 23 1209 77 1149 79 1050 22 1296 24 812 81 616 26 1082 21 536 28 730 86 381 40 618 84 805 85 508 69 644 15 594 87 459 71 594 73 452 18 349 72 267 20 314 19 148
23832 -4.8263255127865907 0.17781019956805807 4.2570122800443073 54 59 62 0.75957379368082401 22 1567 77 1359
20620 -3.7806658207808472 2.1021596706275538 3.0672085737477244 63 60 60 0.97061809086759376 44 2633 42 1322 96 1112 43 1134 76 1649 16 680 75 2021 22 1683 23 1524 77 1443 79 1805 80 1822 24 1462 81 1333 26 1999 27 1296 28 1636 21 803 74 1106 86 694 40 797 85 1242 93 604 15 603 32 1013 83 1080 71 372 18 574 91 551 37 1597 88 1460 35 1387 38 779
23826 -2.0078796519036359 1.6197879451693498 5.8514641258819191 34 28 19 1.5726376232178945 76 1082 77 1249 79 1538 80 1889 24 1191 81 1502 26 1619 27 1810 28 1792 84 1610 85 1681 86 1227 33 1195 32 1348 31 1493 37 310 91 93 38 364
20621 -3.6187701376164583 2.1470342751174596 3.5404412157670961 65 58 56 1.3613802355452083 95 1159 42 1323 41 594 40 621
20622 -3.6571427703521078 2.1238669441939191 3.1833645597163915 34 27 28 1.3851634299503066 95 1165 42 1326 96 983 43 799 76 1363 75 1628 22 1319 23 1226 77 1171 80 1043 81 977 26 1511 27 1305 80 1422 28 1656 74 778 86 706 40 379 84 837 85 533 32 499 31 852 30 870 82 254 83 611 83 797 87 806 34 493 71 377 18 360 37 535 88 784
20623 -1.7263527409964179 1.7736763925765087 4.321467910157617 40 14 4 1.1270225894098931 95 1418 42 1342 43 1005 94 681 41 629 76 1700 75 2085 23 1563 77 1486 79 1496 24 1525 86 801 84 1508 85 1339 30 1416 87 1203 37 973 90 730 88 1254 35 1272
21862 -3.4751917866908943 0.5449006201821377 5.0133029058712344 44 60 68 1.2831521784298494 42 1838 41 1506 16 1627 17 849
20625 -1.6046607293895008 1.7947688650636975 4.3567817034446819 26 8 3 0.94347147230043504 95 1232 42 1350 94 693 41 646 75 2098 76 1713 22 1752 23 1578 77 1507 79 1533 80 1884 24 1549 81 1811 26 2077 74 1192 27 1426 28 1789 21 885 86 1194 40 400 85 1371 69 105 93 433 33 1177 31 1457 32 1303 87 1244 71 420 73 521 20 372 37 994 38 415
22371 -3.904071194177841 0.23717928225882917 4.7786041629616518 50 72 92 1.2041570299305548 41 1462 42 1812 43 1412 16 1596
20626 -1.5552149225085798 1.8374165268394673 4.3624595849480157 25 8 5 1.0245458184033198 95 1430 42 1355 71 427
20627 -1.386662516634189 2.0401707910659828 3.975936718609038 33 11 5 0.72281042538918683 95 1440 42 1364 94 709 41 672
21349 -3.84328817932533 1.9943841988263602 3.1811612488335235 87 90 90 1.484113452904561 42 567 95 904 41 375 40 151
20628 -1.386662516634189 2.0401707910659828 3.975936718609038 33 11 5 0.72281042538918683 95 1441 42 1365 94 708 41 671
20630 -1.340286463542449 2.0815846940016698 3.9100907492054757 65 37 13 1.4845178873640261 95 1451 42 1380 75 2130 16 147 79 1576 24 1608 81 1530 80 1905 26 2100 27 1837 40 431 91 284 88 1010 38 454
21860 -2.7472462658923749 0.29835527878183021 5.2977467255285529 8 9 10 0.23103131876625241 63 2872 41 1499
20631 -1.2057841491150272 2.0842783128610272 4.0244234272681956 33 11 5 0.888137083498586 95 1460 42 1386 41 689 74 1440
21353 -3.7280493372862193 2.2995263803642545 2.9621980789493692 0 0 0 0.96581288295532897 95 954 96 681
20632 -1.2046015164599095 2.0852625038797346 4.0244157770586915 33 11 5 1.6412077978563113 95 1461 42 1387 41 690 75 2424 22 2064 81 1848 74 1439 21 1113 86 1567
20633 -1.2874056513932757 2.1175853049862821 3.8830318858661963 42 16 10 1.5074905478695959 95 1468 42 1389 88 1308
20636 -1.1928914364453906 2.1405254566094412 3.9242609975839113 41 15 15 1.3269103363951376 95 1299 42 1400 41 703 75 2165 22 1796 79 1598 80 1590 81 1557 26 1696 74 1242 21 927 85 1450 84 1290 37 1051 90 795 91 305 88 1061 38 475
21868 -2.2125512350924885 0.60890291663666529 5.6513995696837869 45 62 73 1.4374566289157908 94 1497 41 1538 40 1560
22323 -1.1161137631770635 2.4896472708418971 3.8112656330826176 4 3 3 1.5744226499590592 41 1175 16 1188 74 1825 40 825 93 905 15 973 20 1290 39 195
24029 -1.4456401600164448 2.0185932866896699 4.046098070346309 107 45 16 1.158489844633382 77 1027 79 448 80 825 24 967 81 792 26 876 27 676 28 918 84 961 85 688 33 559 32 625 31 1010 87 968 34 910 90 244 88 643 35 950
20642 -13.518377949189663 2.9868355682642669 3.663102034296839 42 24 25 1.4555777368028455 95 1519 42 1464 94 1087 41 1209 22 2236 76 1791 23 1661 23 1883 77 1786 24 1917 40 1078 93 945 15 925
21975 -3.6776851950803056 2.1383913210539158 3.5964181098563941 58 44 35 0.68051119396297843 76 350 23 345 77 292 86 154 37 244
20644 -13.345428973183271 3.093147800558532 3.6031791013514902 70 55 52 1.2630255196602038 95 1344 42 1466 96 918 41 1077 76 1569 75 2307 22 1951 23 1670 77 1571 79 1715 80 1699 24 1341 81 1623 26 2209 74 1349 27 1135 21 1316 97 2905 86 1343 32 1404 83 943 34 1195 73 1229 18 879 20 995 19 617 17 313
20645 -13.277852779204723 3.1896902007426786 3.3887825252237755 67 48 50 1.422299552770286 95 1526 42 1472 76 1797 23 1676 41 1083 75 2315 40 1103 94 1098 69 1016 93 958 71 952 70 230
21812 -14.678180270618597 2.2226494575457818 3.6969911829268143 63 59 41 1.598266970947827 42 1603 41 1289 21 1513 97 3019
21305 -13.758183449793881 4.1270299474190688 8.8328581434383544 18 9 9 1.5957587458604463 95 375 98 346 94 71 16 371 41 333 93 88 15 54 68 32 69 62
24027 -1.5139130683336532 1.7952528736724345 4.5854536101783854 97 28 8 0.98834940304169894 76 434 79 443 81 438 26 863 27 671 28 516 86 264 84 671 33 271 32 639 31 701 87 377 34 685
20648 -5.4097897447924366 1.4939655293257341 4.5350532359929687 42 50 56 0.92756647061964004 95 1543 42 1480 43 1083 16 1117
22490 -3.0106601709917826 1.3018154233741397 4.6262589674936816 63 68 74 1.5147545757806506 13 158 44 1296 94 382 42 786 68 27 35 860 95 876 22 400
23864 -5.2134633663958629 0.37187261125874849 4.0348123355875405 51 54 54 0.95989017615416861 76 1777 77 1549 79 1691 81 1614 80 1676
20651 -12.872751654837707 3.3189147561187298 2.9017236315689012 67 49 46 1.4919027104566531 95 1535 42 1490 96 933 41 1095 94 1105 76 1808 16 1147 75 2319 22 1958 23 1692 77 1581 24 1676 26 1852 74 1352 28 1932 86 1616 40 1120 84 1646 85 1719 93 964 15 944 68 842 33 1508 83 1193 87 1510 18 887 72 631 20 992
20653 -2.099987000014814 1.7126758222488228 5.563901073517675 23 23 18 1.3199035452194772 95 1570 42 1527 12 873 43 958 94 1019 41 983 76 1936 23 1805 77 1714 24 1857 28 2126 86 1543 84 1772 85 1660 69 848 33 1466 31 1465 32 1143 91 578 37 1339 90 967 38 615 38 803 39 145
21977 -2.5979156336776543 1.4800922038616626 4.2675536284153726 129 144 158 0.7114210100010312 42 145 76 362 77 316
20654 -2.1308770965012895 1.6488650099227009 5.0877676743338833 45 24 17 1.4977903717127949 95 1575 42 1533 96 1101 43 1124 94 1017 41 987 76 2101 16 655 75 2627 22 2305 23 1979 77 1872 79 2320 80 2378 26 2751 74 1425 27 2429 28 2660 21 1360 40 790 93 754 15 577 82 597 90 1503 20 636 38 1090
21820 -2.0576105692473465 1.476808345553031 5.5143107618308118 17 21 19 1.1236284762575524 94 1276 41 1316 40 1139
20655 -2.1314224431344462 1.6494173833289643 5.0875136788824982 45 24 17 1.1185130099521321 95 1576 42 1534 96 1102 43 1123 76 2102 22 2306 23 1980 77 1871 79 2321 80 2379 24 2057 21 1361 90 1504 38 1091
20657 -3.4849415404737276 2.2311728939674031 3.3883466658203782 74 66 64 1.7500887446128874 95 1408 42 1541 96 1120 43 1290 94 878 79 2115 81 2066 77 1696 37 1629 90 1233
20659 -1.4719214570444599 2.1572559511628802 3.7672321404283453 55 63 65 1.3079255105117333 94 1047 75 2638 16 723 22 2316 77 1746 79 1878 80 1902 24 1885 81 1832 26 2381 74 1636 27 1833 28 2158 21 1378 86 1230 93 633 15 637 68 581 69 685 33 873 18 781 37 1013 90 765 91 459 38 643 39 76
21774 -8.1677336445717827 2.785119113769889 15.134882349928045 41 64 71 2.9597668517076787 103 1915 41 1090
20666 -14.852582936497186 2.1109390787831357 3.9245435994472437 63 58 41 2.0164261116910387 95 1705 42 1598 96 1153 41 1288 76 1986 75 2697 22 2400 23 2010 24 2087 21 1635 40 1217 97 3017 18 1122 19 888
20672 -15.278497849652208 2.7614327921062771 5.8708722703963208 0 0 0 1.4741245774636553 44 3183 45 1711
22054 -9.2332168890253321 -2.3515814638391452 13.814145797407042 91 92 80 1.8127660517559159 97 1075 76 1221 75 1538
23079 -2.0562591212851595 1.7392224761354211 5.6028779791496852 8 7 6 1.1600231062543125 76 751 22 965 23 668 77 674 75 688 79 1192 80 1177 24 355 26 1222 74 544 21 382
21846 -3.4749593411311648 0.19499198197971179 4.8898075274248356 52 73 87 1.3184266766302413 42 1899 43 1485 41 1467 16 1598
22355 -1.971701910579114 0.97053720377242159 5.4413284303202243 2 4 2 1.5996452168712618 16 1423 24 2394 71 1432 73 1934 72 1348
20674 -14.394408106661993 2.9205939972032091 2.5246118556737693 54 48 39 1.7087526460179154 42 1631 41 1295 16 1424 22 2228 23 1873 40 1236 69 1261 93 1055 15 1157 68 1018 20 1244 17 392 70 315 39 272
20675 -14.395666422929262 2.9211003456053 2.5242990928337661 54 48 39 1.6983094866142874 42 1632 41 1296 16 1425 22 2227 23 1872 40 1237 69 1262 93 1056 15 1158 68 1019 20 1243 17 391 17 494 70 314 39 273
20679 -3.1112001668748919 1.2004629472695176 5.5625832519922556 3 1 3 1.3430617563987823 95 1675 42 1659 96 1200 43 1269 41 1130 40 949 69 1010 93 876 91 989
20682 -5.9541567534216426 1.2678354494964099 13.853105500000028 35 37 35 1.7117780408614549 6 2769 42 1691
20683 -5.9541567534216426 1.2678354494964099 13.853105500000028 35 37 35 1.7117780408614549 6 2770 42 1692
24105 -3.540545142918146 2.2691887299078051 3.1320060673345789 79 63 55 1.8382064735102261 43 848 79 1090 21 567 97 2088 85 563 32 520 34 516 19 36 88 512 35 495
20687 -2.1449839075269015 0.73785652389267742 5.8440387597989689 0 0 0 1.2669277682551991 65 1355 66 1138 64 1477
20689 -13.282005190925013 4.1322623541897467 3.5901788493411564 52 32 32 1.3086882559944983 95 1736 42 1708 41 1309 75 2734 76 2139 22 2550 23 2031 77 1922 79 2395 80 2448 24 2125 81 2362 74 1889 21 1654 86 2028 40 1254 82 662 83 1532 71 1215 73 1744 18 1356 72 1347 20 1523 19 1145
23095 -1.5150682335520158 1.8072138080788713 4.6224082652900407 80 28 8 0.91580901541658 75 1282 22 1018 23 1018 77 1009 79 1222 80 1195 24 1262 81 1521 26 1665 74 558 27 1467 86 858 84 1266 33 875
21926 -4.5070860852794237 0.56245176222538795 4.4877211867450022 48 63 77 2.8618437116601552 94 961 41 908
20691 -12.862658704900392 4.2175938247983797 2.8730729392289129 11 4 3 1.7473093695528163 95 1742 96 1264 94 1262 70 413
21413 -3.5481626064631606 2.1865964253416563 3.2739237225319191 0 0 0 1.3430230619650489 42 1329 96 1117 76 1914 27 1763
20692 -12.663521005733907 4.303535874863365 2.6317843564169734 8 3 3 1.8199041201665789 76 2143 75 2843 22 2552 23 2036 42 1714 77 1928 79 2394 80 2447 24 2282 81 2361 26 2650 74 1890 27 2348 28 2608 86 2030 84 2097 85 2050 33 1839 32 1599 82 664 83 1531 71 1435 73 1740 72 1344 38 1390 90 1553 29 441
24487 -1.2067241925442997 2.2348076041337421 3.8153457348590281 41 24 23 1.9021177242875595 80 1228 81 1163 26 1291 27 1026 28 942 86 593 85 739 33 584 32 360 31 728
20694 -15.371289710346115 2.3665000650875059 5.058509786403711 4 1 1 1.8802748928753286 95 1774 42 1747 94 1307 75 2899 85 2186 69 1478
20696 -12.700838475830968 4.4674575028401025 2.8711808235054144 49 34 32 1.8024601425282896 95 1824 96 1266 76 2217 75 2919 22 2635 42 1784 23 2157 77 2052 79 2526 80 2585 24 2284 81 2482 26 2802 86 2161 85 2126 30 1809 82 758 83 1656 87 1851 38 1571 29 565
23970 -12.996133475225243 4.9966843713955127 3.3663124509979969 45 27 29 1.6736905493912821 95 1377 96 771 76 1616 75 2355 22 2001 23 1484 77 1401 42 1305 79 1777 41 1146 24 1762 81 1707 26 1953 74 1390 94 1003 86 1404 85 1741 30 1288 83 988 87 1530 71 980 19 646 37 1691
20701 -17.22297280488338 1.9471688716216748 4.8770833150294193 36 25 22 0.2554218128150576 23 2190 76 2258
23091 -1.5826455234978671 1.7497653171514798 4.558532834748819 47 18 6 1.1975814671393052 75 1263 22 1002 79 1544 80 1533 24 1547 26 1645 21 645
22077 -2.1095528642881765 1.7614505124321731 5.5659870468006112 3 5 4 1.1056950321626409 41 819 76 1427 75 2083 22 1739 23 1292 77 1476 79 1525 80 1519 24 1193 40 604 37 603 90 442 88 666
21932 -3.4059529600171148 0.35275737783982219 3.8763992961536466 50 65 77 0.24526716844111526 44 3033 41 1194
21361 -1.7664314618418244 2.5213595127611841 3.9386339427849242 113 105 85 0.16951943826972476 45 1389 94 510
20704 -5.147922854761485 0.4875299065968145 4.1847864102970274 45 60 64 0.82816363561254525 95 1849 96 1347 94 1416
22387 -2.8724502854602951 1.4013800954349178 5.7469667007554159 3 1 3 1.2249638746169123 42 1871 16 1699 41 1422 70 812
20706 -4.7314213956619096 0.45173678982572685 4.3201414908056872 47 61 70 2.0010951753768658 95 1853 96 1351 94 1422 41 1465 69 1455
20710 -2.0191465134664077 1.3554326136878219 6.2205011728998123 30 28 24 1.0533751753948077 95 1906 41 1426
21876 -3.0707014352451352 1.0768052460256026 5.5721959982505362 36 49 62 0.38322418133810898 42 1857 41 1553
21369 -3.3776550108987151 0.54613922151868954 4.7005980245572285 8 6 8 1.0756489380761221 61 1749 94 581
20712 -2.0656271816349925 1.7324839283586388 6.3863639900861751 27 25 21 1.8314852071292254 95 1911 43 1397 94 1386 41 1430 93 1288 40 1482
20716 -3.0844943661785522 0.32974756876598055 5.0739712585549173 3 4 5 0.76762084956856613 44 3414 42 1909
20717 -2.9077142359228274 0.31109396107894105 5.160405038909242 48 63 75 1.0846944407806409 44 3416 42 1911 41 1495
20719 -2.3948265924484913 0.45051927137694237 5.4963734155172217 34 40 39 1.1233554145149087 95 1966 42 1926
20721 -2.7714186886892356 0.66257435910887397 5.3963279197781668 5 4 3 1.4724755401023497 95 1976 42 1936
21317 -3.6550016064184776 2.047479895034757 3.3309993178473718 0 0 0 0.91439017261806055 43 420 96 431
20724 -2.7993757311607403 0.85107480067165175 5.487450606889321 37 43 48 1.333790444869553 95 1991 42 1948
24391 -24.019230217701747 -0.35228843111600583 8.519086997169067 61 55 38 0.83484079505904663 76 479 80 503
20726 -1.9402630587878165 1.1520017913892704 6.1092906803580966 3 2 1 1.467904647933387 95 2005 42 1958
20727 -2.0389082182063412 1.565146294534729 6.3988521776317837 3 2 1 1.0385648408342194 95 2006 42 1960 41 1570
23874 -3.5609009959897913 2.162525365645374 3.415170367654186 80 60 53 1.4065103469029669 22 2021 75 2371 77 1691 79 1818 80 1840 24 1834 74 1401 21 1086 86 1510 72 469 20 818 19 346
20733 -2.7349061648922381 2.2211499631773823 3.9824511012946684 60 62 57 1.4200917198591796 42 2000 40 1638 37 2158 90 1896 92 611
20735 -12.809523322215083 3.3454597619067603 2.5316861598123541 49 34 32 1.03929393439009 95 2050 42 2002 17 1024 92 639
21168 -3.0499476956802072 0.48512292006979968 3.8836533897346781 180 172 174 1.3203998401212849 42 1008 43 893 41 537
20737 -1.6722078732233867 1.9429968032860192 4.2051181794577328 61 21 14 1.526377225981481 95 1247 42 1164 47 1706 25 1263 3 2193 2 2547 89 2839 36 1969 100 1865 62 1224 9 1112 53 939 63 1161 78 1582 8 1341 61 1495 7 1354 56 1944 67 1913 10 992 1 1597 64 627 49 1090 48 2193 54 1379 46 1357 101 2310 102 955 98 1326 45 1109 94 705 41 666 16 426 76 1724 93 443
23741 -4.0589067041629816 0.117975778491267 4.5542680563542683 56 63 65 0.32554378968113867 75 414 77 99
20738 -3.6529860729591337 2.3124082113536994 3.0145037282065523 61 49 48 2.0325868623509047 44 2902 97 2724 42 1336 47 2564 25 1868 9 2303 53 2060 51 2439 52 2072 104 2368 63 1994 78 2168 58 2855 64 1266 66 1096 76 1376 22 1702 23 1242 77 1187 43 1008 81 652 28 779 21 829 74 1128 86 434 84 512 85 546 32 182 31 538 83 621 87 164 34 501 72 465 20 601 73 792 19 343 91 416 37 880 38 591 30 573
20739 -3.767033664476084 2.243130249276267 2.9881335102454623 15 10 8 1.4535129468427139 42 609 36 2606 50 1197 25 1352 47 2131 14 2365 2 2947 89 2962 100 1986 62 1384 53 1474 51 1613 103 1209 52 1467 106 1672 104 1701 105 1409 63 1656 78 1656 8 1388 61 1109 7 1409 55 2376 56 2266 67 1952 60 1576 4 1313 5 1947 6 1537 58 2087 57 1661 59 1063 10 1494 1 1591 64 733 65 757 11 709 12 317 13 431 66 301 48 1903 54 1354 97 1646 46 1418 96 654 95 670 94 428 41 404 76 347 23 631 88 465
20740 -2.9460409725469643 0.66258849992421065 3.8580557189488074 0 0 0 0.98092280461955594 1 434 14 1094 2 1407
21172 -3.0963403932741684 0.77188142688439376 4.5151898959733563 120 129 143 1.1085006125074572 42 1022 43 917 41 774 15 19
21681 -3.6668208998740561 2.2148776354755442 3.6174626039574198 35 28 26 0.68475215191580718 95 662 41 391 93 176
21176 -12.679868780278371 3.0259961041461318 3.3162563359749835 67 45 39 2.949034230944005 96 921 43 935
20746 -3.2075663467326319 0.32843520771563467 4.8996006361594198 0 0 0 0.33360442156757542 10 2668 13 2027
22202 -11.630766402923379 -3.3690922556170588 15.237128886163308 0 0 0 2.4967211361460948 10 38 89 434
21695 -8.7193309052424102 3.0222335631793329 16.594652623269599 46 62 70 3.6754706092067257 103 125 41 544
20748 -5.4159165287346882 1.2364989655619432 4.4007203534863697 4 2 3 1.4817554259061798 12 1935 55 3755 56 3281 67 3237 1 2901 49 2141 54 2571 46 2606 99 2956 98 2457 48 3120 45 2139 62 3576
20749 -1.1964739308401615 2.2187101998438896 3.842832316795044 89 57 51 1.6826167737206184 36 2061 50 1129 47 1382 3 2248 14 2062 2 2605 89 2417 100 1054 51 1113 103 814 106 1192 105 965 104 1205 78 965 78 1345 8 961 55 2060 56 1695 67 1658 1 1684 44 2351 54 1437 45 1177 49 1340 48 2236 99 1985 15 148 68 427
21689 -1.159889967209236 2.2844151886613364 3.8410046934417723 47 54 56 1.1642530699719222 42 1218 41 490 75 1772 74 928 21 708 71 163 73 589 18 473 20 419
20750 -3.4319517328481877 2.5501546802072275 3.1314906507606937 7 3 1 1.7360225472152495 25 1410 3 2642 14 2428 2 3310 78 1705 8 1772 55 2751 56 2334 67 2280 1 1965 49 1130 48 2483 54 1426 46 1749 99 2006 101 2348 102 975 98 1066 45 1184 14 2694 98 1384 15 450 69 504
20751 -2.6652133664407667 1.6724595115776999 3.8499736923483781 69 57 47 1.308007241537654 55 3191 56 2725 67 2509 99 2382 101 2759 54 2013 46 2034 48 2657 102 1260
20753 7.4132433169151737 4.2943281849789274 14.528923956006148 22 18 18 2.0549084556597572 47 2045 25 1340 89 3253 100 2244 62 2153 52 1997 63 2183 63 2409 8 1808 36 2834 61 1922 7 1792 60 1983 5 2225 4 2043 6 1504 58 2421 59 1890
20754 -4.1329063585043224 2.3187763413767111 2.9881773134202807 50 38 37 1.9974079395611228 36 2618 25 1104 47 1856 89 2979 100 1620 62 1402 53 1096 51 1619 103 1224 52 1039 106 1688 104 1711 105 995 78 1373 8 988 61 1121 7 1021 56 2000 55 2391 67 1967 60 1147 4 1782 5 1971 6 1568 58 2105 57 1224 59 1538 54 796 99 1035 101 1671
20755 -3.8247792881833842 1.994397060162173 3.2518149527981643 47 35 33 1.7439431433253867 51 1086 103 721 52 413 11 246 44 1322 14 1691 55 1516 67 1562 49 397 46 787 9 624 98 332 45 235
20756 -5.09601681546535 1.764702152022831 4.7902065385325105 38 40 43 2.3600748062847239 36 4050 47 3056 50 2525 62 3600 9 3319 53 2931 51 3049 103 2554 89 4387 52 2940 106 2948 104 3247 105 2862 63 2965 4 3409 57 3328 59 3279 10 2740 61 3257 100 3376 60 3351 5 3583 78 2682 6 3468 58 3771
21124 -3.0924329189544819 0.43840286045486682 3.8738297491549254 103 108 113 1.3013459930194666 42 752 43 699 16 19
20757 -5.5343437442382788 3.8457017939165814 5.5490395716777821 0 0 0 1.2556219174711147 60 3120 61 3024 57 3118 60 3432 59 3352
21633 -4.0611041723946988 1.2141151645078174 4.4783713211080185 4 2 4 0.12226177339254946 95 1893 94 1504
20759 -3.9195542836173889 1.9773554242487934 3.2676153345072096 47 31 20 1.912263351364484 11 955 64 680 65 690 12 668 13 801 66 644 44 2265 97 1618 14 1289 1 539 2 1618 3 1388 49 394 48 676 46 785 99 602 54 212 98 321 45 531 95 1137 42 1310 96 1104 94 855 41 806 76 1340 16 389 40 609 69 428 93 591 15 401 68 343 91 546 39 130
23691 -2.8928779016103365 0.30280472742937242 5.1784438342432111 57 61 69 2.3201915025668449 75 3091 23 2291 71 1737
20760 -2.1285229324255983 1.9527194457563279 4.4919413269881989 63 19 9 1.4704451910850078 36 1372 89 2310 100 931 3 1389 2 1622 14 1291 78 888 56 1256 67 1234 1 958 54 812 101 1685 102 630 47 359 2 1621 89 2311 78 889
21128 -14.282535798416081 3.5085194720285338 4.7343593583044514 55 28 26 1.1011237537928069 96 735 94 975 72 444
20761 -3.6348944766823923 0.18305159789540179 4.7515203485109287 7 7 10 1.938809400942819 53 2811 52 2816 89 4257 4 3292 5 3492 61 3134 60 3238
22154 -3.2222475572049647 0.19964499495451438 4.9926899838886198 6 7 10 0.88222251126709228 95 1700 76 2137
20763 -2.9677669608508492 0.55832836036823297 4.0639973158408109 51 43 39 1.7491580745774018 95 54 96 35 23 204 77 149 79 173 80 168 84 437 85 109 33 43 30 122 87 116 42 56
20765 -16.012547813450173 1.8628324955080644 5.27693946356281 64 42 35 1.5063882709539458 42 19 95 319 96 123 22 287 23 494
20768 -3.0110546018255646 0.43311077725103647 3.802448300855374 95 94 96 0.87956549276888718 95 41 96 128
24524 -1.9956334195781207 1.8288193187045696 5.7777325838635303 6 8 4 1.3962741404168826 75 2102 80 1561 26 1660 74 888 21 662 85 1467 31 1508 37 316
23645 -3.2968935430572524 0.45544172020373508 3.8715941764855155 122 127 132 1.0803446677195829 75 2707 23 1911 77 1920
21591 -1.8219852516909323 0.025852457906029358 5.7112878547447918 0 0 0 1.4356170488115305 98 2512 102 1787
20772 -2.9798466926914626 0.61198339830794113 4.0105622521916553 49 41 37 2.2165608830095329 42 288 96 136 77 161 80 180 24 131 43 223 86 71
21076 -2.1748003380011363 1.665721292801543 5.4976611180842614 6 3 2 1.1177198899691994 42 561 43 376 94 403 41 368 76 1077 75 1680 22 1367 23 947 77 657 79 1157 80 761 24 631 81 737 26 424 74 518 21 353 21 615 71 115 73 537 20 384
20773 -2.9780290912217948 0.66415221397485436 4.1287821368644106 49 43 36 2.0664796397664191 42 70 95 69 96 142 43 129 24 154 31 102
21585 -3.0152370196213902 1.1919970432017115 4.5243376433983578 23 21 23 0.4285381017239005 96 1398 94 1584
20774 -2.9870131641328164 0.67236298128165384 3.9815099348804561 52 47 42 0.68344582975383628 95 72 96 146 76 244
20777 -2.9864732907313254 0.73472928046454489 4.1776666207074342 38 31 30 2.0510913180336909 95 84 96 152 43 141
24523 -2.0308058666284983 1.6460150985477962 5.9297931133393238 26 23 23 1.538333872570659 79 1201 80 1545 26 1632 27 1425 28 1800 33 1205 84 1618
21080 -1.9325613295573305 1.6424797758807723 4.7175581656439025 95 36 13 1.0845721664208003 42 368 43 400 76 397 23 667 77 661 79 363 24 639 81 388 26 417 28 842 86 511 84 911 85 641 32 863 31 923 30 718 83 691 87 932 34 879 37 312 90 211 88 618 35 620
20778 -3.3750775950750951 0.97400387579554415 4.0281790386809329 66 71 76 2.3746275179726335 95 104 96 164 43 151
22106 -1.5804672295763185 1.814331105425393 4.356333694568395 78 25 18 0.69992154699675857 41 656 76 1717 22 1755 23 1580 79 1863 74 1198 38 631
20779 -17.6505456937454 0.89864565848620059 7.4030887131184135 56 29 31 1.3011616087548039 95 313 96 223 23 481 83 508
22479 -4.9234107213392448 0.46837276189791094 4.2454682925938751 2 1 2 1.7675862203886268 51 3104 52 2999 53 2841 6 3381 48 3007 98 2374 101 3081
21084 -3.5362619257224459 2.1994278768767188 3.4977475278966979 40 27 23 1.1493951340938888 96 458 43 445 41 182 76 704 75 637 42 185 22 924 23 358 77 623 79 727 80 693 81 347 26 762 74 487 27 909 28 792 21 574 86 453 84 529 85 580 33 446 32 533 30 895 83 420 87 529 34 536 73 107 18 94 19 38 90 184 88 144 35 167 38 130
20782 -2.9589686001555195 0.53482763330344707 4.1102127300744993 50 43 34 1.3475598891444587 95 335 96 237 94 57 41 50 75 488 76 216 77 144 86 64
20788 -2.9870868698372401 0.66007383949330845 4.0274561168593888 48 41 39 1.6921535540079997 95 359 96 256 76 242 75 513 22 352 23 240 77 544 80 196 81 259 74 79 21 263 84 450 33 52 31 91 30 142 83 82
23510 -2.588607586552361 1.4922754416410875 4.2653469084063191 80 76 81 1.4678280577967768 76 709 23 638 79 740 22 446 80 329 81 359 74 189 21 309 84 548 85 244 95 619 30 649
21671 -3.0658399212055687 0.72004096864500589 3.9852821917830417 43 48 50 0.30178480887011372 94 351 41 329
20789 -2.9907413552668163 0.7314135188674219 4.1447122403350152 67 59 53 1.7967810046801702 42 528 95 594 96 265 94 75 75 1112 22 852 23 569 77 830 76 631 79 668 80 631 41 72 24 504 81 603 21 266 86 369 84 798 85 509 33 365 32 117 31 475 30 511 83 355 87 493 18 27 20 13
20792 -3.8456974904647265 2.0253208844574866 3.5654011750385681 49 37 32 1.4600363455957472 42 346 96 302 76 667 23 609 77 587 79 703 43 390 24 828 81 635 28 757 90 152
20793 -2.2096978859945935 1.7296290757640922 4.946906267607674 53 30 16 0.3648515064070037 95 439 96 313 43 277
24539 -5.1888201713445108 0.61655508154118355 4.186333016067314 5 3 5 1.5338407972856944 77 1574 79 1710 80 1697 28 1475 81 1637 24 1339 28 1068
21160 -3.4104307083053635 2.3553612874322147 3.3336501085258314 21 12 12 1.5372281770473479 96 869 43 857 76 1401 75 2057 22 1717 77 1213 80 1452 74 1149 93 220 72 487 19 359 37 575
22186 -2.2110782651969489 0.91237752447306086 5.4700376930234347 60 64 59 1.6773732400084012 26 3016 81 2745 28 2853 40 1634 63 3175 93 1443 33 2098 32 1801 82 998 91 1429 90 1939 37 2202 50 2681 35 1888 38 1697
20795 -3.5807600974927807 2.146160663808979 3.4905512347934593 59 41 36 0.82821673612309676 95 196 43 431 23 351 24 280 26 755 27 570 28 342 84 176 32 191 30 594 35 509
21679 -2.6233537261816857 1.5410207307926049 4.0962790092165555 110 127 130 2.1169184126067058 96 782 41 361 95 1136 86 173 85 235 37 283
20796 -3.4742842211922871 2.3215809503308207 3.5266094397413439 39 27 22 0.76516433343330481 42 621 95 202 96 354 91 83
20798 -3.1159014758863495 0.97759984851532733 4.0171165964858764 40 43 41 0.76645211708362393 98 253 96 382
22488 -2.1884471958486613 2.4015240832126272 4.3323732062012281 80 64 45 1.4373473949812283 66 1919 44 3632 94 1591
20800 -2.0092067897645398 1.4744164659766148 5.6199136009109631 34 27 18 1.6622219777804672 42 1058 95 889 96 393
20802 -2.0154803632652407 1.7237614466287616 5.6807682233850869 8 5 3 1.7267624885672173 95 653 43 378 94 152 41 142 76 1090 75 1699 23 954 77 944 79 1199 80 1181 26 1229 84 983 85 1094 90 212 88 380
20803 -3.9781562330785976 1.9832684484172765 3.279745964120687 28 20 18 0.68070909051528827 95 405 96 406 41 130
21236 -2.1464376316587281 0.76385093861796771 5.8750773369616471 37 47 55 1.3059359977295502 12 1393 13 1571 68 915
20805 -3.6605629624056255 2.1101837175008566 3.5315441293665657 77 60 51 1.669513643054817 42 583 96 427 41 166 76 1033 75 1174 23 902 77 877 79 1084 80 678 81 655 74 477 28 778 26 1121 86 439 84 850 32 522 31 864 87 514 34 519 18 81 38 119
21745 -13.66462722267997 3.8188768833030768 4.0203195232377569 53 34 36 1.9472898045475699 98 1576 99 2231 41 946 76 1281 94 983 40 754 69 833 73 765
20806 -3.8374926419802051 2.053966448153167 3.1162936850888578 81 61 53 1.3845116904226202 44 1331 95 640 96 429 43 575 41 152 94 141 76 664 42 575 75 1142 22 885 23 610 77 579 79 688 80 248 24 553 26 719 74 144 28 272 21 94 84 131 84 132 85 143 85 144 31 155 87 115 37 216 91 61 90 140 88 77 35 84
20807 -1.8991876871143589 1.6517795965999365 4.8035542874712549 52 12 4 2.037907102742516 42 591 96 432 43 553 76 1429
23803 -3.9050555126446045 1.9758381008645496 3.4276122415789905 93 73 65 0.89596214915070738 76 1012 77 843 26 718 27 854
21240 -5.0056840167831593 0.33200832274025649 4.2480362682459889 53 56 56 1.1593296532857549 42 1741 43 1342
20809 -3.6126242759073528 2.106881015417426 3.402642477407666 38 24 22 1.0894794552272395 95 437 96 442 76 348 77 285 74 181 21 113
20810 -3.6210746554147111 2.0946794921958003 3.3176139078147142 48 33 33 1.4170301520864528 42 370 96 446 23 343 77 275 79 293 22 908 26 329 21 107 40 163 85 188 32 183 30 215 80 289
20812 -3.5971837737176098 2.1543163153851346 3.2445092351167295 81 61 51 1.7219112111348822 42 384 96 463 23 349 77 290 79 300 24 278 24 852 26 1120 28 1222 85 552 83 628 20 86 35 137
20814 -3.5241715182899687 2.2728058492232641 3.5363521637408333 28 17 14 1.6788354113706807 42 610 96 471 76 1054 75 1187 22 1343 23 925 77 898 79 1106 79 1445 24 1141 81 1016 26 1543 74 495 27 1333 28 1693 21 582 86 743 30 1157 84 1172 85 1283 83 835 87 1124 34 824 87 851 73 117 20 110 19 170 37 556 90 402 43 616 91 223 88 829 35 532 38 336
20815 -3.437957705289322 2.2997433799936147 3.3205980644668935 52 37 32 1.3972087800381292 42 631 96 492 43 660 23 654 77 637 79 321 80 316 24 612 26 357 21 328 84 188 85 211 33 164 31 559 30 249 83 168 87 197 37 270 35 527
21542 -4.0237063178822146 0.53896430698094666 4.4364082076063873 48 62 70 0.9763343268242024 96 1281 94 1452
20817 -1.8195012386592955 1.7965372048055925 4.3092264766437571 75 31 13 1.0966782234159049 42 411 96 504 43 465
21188 -1.9098653720941641 1.8184508690699039 4.3259435241843427 35 9 4 0.86553582401880302 95 1205 96 1004 43 999
20821 -14.86524219647222 2.0837158760929992 3.830516826799979 23 10 10 0.6093229784780464 98 1249 96 528
21033 -3.5962421537132747 1.4918356701419024 3.887625869180686 123 142 158 2.0260267745851599 95 2052 43 1571 42 1997 41 1628 94 1616
23755 -2.270829621933224 0.78364660992787005 5.5284987653557671 58 56 48 1.261049714812712 76 305 77 284
21037 -14.998665134849388 2.5373285000733046 5.4470457149686551 59 35 26 1.7188043754912306 96 231 76 159 75 455 22 835 74 81 42 753 32 975 83 935 85 1502
21711 -1.1956332014373059 2.1235326394779919 3.9463850736603283 85 54 49 1.1257770742837416 94 738 41 700 16 153 74 1239 21 925 40 448 69 174 93 460 15 133 71 443 68 410 73 561 18 450 72 112 19 59
20828 -12.399670796258526 3.7780992402454747 2.6535945733149493 56 29 27 1.6024557674633457 95 1114 96 561 79 1014 80 975 74 1089
23586 -1.5494747618425959 1.7734062383662272 4.605828900773294 35 9 1 0.74337338653101348 22 1407 76 1158 23 1364 77 1314 79 1561 80 1552 24 1554 81 1513 26 1658 27 1458 28 1818 21 654 86 1229 84 1582 85 1417 33 1214 32 1146 31 1487 87 1295 34 1168 37 998 88 1052
21705 -3.4608149364997765 2.2735690066319854 3.3578467275482176 33 26 25 0.97358072631945136 43 835 41 620 76 1391 75 1649 23 1252 79 1102 80 1075 24 1143 81 1012 26 1149 74 815 27 918 21 580 40 393 84 867 85 583 32 540 31 876 30 903 83 648 87 534 34 543 71 395 73 493 18 388 20 349 37 561 90 405 88 537 35 525 38 343
20830 -4.1241153758539459 1.5681472466716779 3.8979953760408055 37 40 40 1.9148999387054713 13 1040 96 567
21136 -2.2460613966713852 1.7507329696929306 4.9374112547515026 9 2 0 2.1486958646639871 95 920 43 750 96 792 88 1225 35 1497
23709 -1.5395099639596241 1.8169216835035349 4.3961043799890263 88 39 13 1.0037795452115212 76 823 22 549 23 1017 95 728 42 668 75 719 79 846 80 810 24 679 81 780 26 855 27 997 28 902 86 566 84 649 85 691 33 545
20834 -3.8641407386243478 1.962027802334954 3.4103572524683705 93 73 63 1.5953889810892781 42 562 22 409 23 596 79 248 43 542 80 650 24 543 81 297 26 280 27 244 28 276 84 486 87 475 91 52 37 497 90 356 88 468 38 86
20835 -3.7334016927069915 2.0510427454601454 3.5434716205984755 38 26 22 1.182812766117264 42 819 96 596 91 188
21655 -4.1199904550114468 2.0660955618595076 3.0826404425692377 76 67 62 1.2020093665753246 94 390 95 629 96 591 41 136 93 155 91 48
21140 -3.7863339317246414 2.0206671147954194 3.2525016123251507 14 8 6 1.3116518129581844 42 1078 96 971 43 767 94 618 76 1351 75 1610 23 1212 22 1302 77 1154 79 1064 80 1031 24 1094 26 1092 81 624 27 862 74 759 28 1193 21 538 84 821 86 399 85 521 93 398 69 431 68 346 33 394 32 476 31 514 30 536 83 595 87 478 34 470 71 369 73 459 72 72 18 353 20 316 19 150 37 510 90 632 35 793
20837 -3.9945493133433252 2.0676766130180195 3.0607761656938588 34 23 20 0.81082772442675122 42 823 96 600 43 562 94 401 41 379 76 657 40 372
20838 -3.9931091645164583 2.0668391812067575 3.0600488487359145 34 23 20 1.0611563437031053 42 822 96 601 43 561
20839 -3.6678665605529326 2.0643658042798188 3.4359404117035357 90 74 66 1.1204545577787535 95 648 96 602 43 563 94 146 41 158 76 1025 75 1627 22 902 23 896 77 868 77 1170 79 1075 80 1047 24 1105 81 645 24 840 26 743 27 559 28 767 21 813 86 431 40 159 84 845 85 934 32 802 30 1134 83 804 87 817 83 623 34 801 37 531 90 372 88 792 35 816 38 106
23707 -2.7493818225353954 1.337213028339872 4.6998588096346285 117 135 156 2.1802378017172765 23 2423 77 2301 79 2810 80 2865 24 2543 81 2758 81 2768 82 1010 29 771
20840 -3.6524195006506837 2.0693846290278151 3.4045437748208509 56 41 37 1.3596902172697525 42 582 96 603 43 570 94 151 41 164 76 678 75 1163 23 898 77 603 79 291 80 671 24 578 81 646 26 744 27 558 28 768 86 429 40 161 84 511 85 189 33 412 30 570 83 400 87 501 34 193 91 69 37 239 90 167 88 506 35 485 38 110
21144 -1.8244915561308563 1.678527985246693 4.5485100194823076 39 8 1 1.4003277456796368 42 605 43 787 76 1096 23 1302 77 1252 79 1146 80 1125 24 1204 81 1056 84 1505 85 1338 32 1079 31 1415 30 1404 87 1206 34 1278 91 254 37 948 90 709 88 1258 35 1270 38 371
20841 -3.6779960286482698 2.0941902617841435 3.1966949090503967 88 67 63 1.5223437484992977 42 592 96 615 43 600 75 605 22 439 77 594 76 333 80 278 24 258 26 320 28 306 21 102 84 160 85 173 33 131 32 166 31 526 30 208 83 388 87 158 34 171
20843 -3.5114875469851512 2.2944254027132502 3.5490861709627621 75 60 50 0.42787595102232584 42 867 96 644 40 185
21663 -1.65488924126503 1.7165885101862353 4.4794270667370748 40 16 5 1.5067873145715744 42 889 41 205 76 1457 75 1703 22 1741 23 1564 77 1492 79 1853 80 1876 81 1443 26 2069 74 853 27 1801 21 627 86 1177 84 1539 85 1640 33 1163 87 1248 34 1292 90 741 88 1286
20844 -3.4525391020426226 2.2946281770738377 3.4723280089019184 84 61 46 1.515659846863588 95 957 96 658 43 826 42 875 41 621 76 1395 75 2054 23 1256 77 1204 80 1450 24 1153 26 1550 81 1371 74 1141 27 1342 28 1698 21 846 86 1119 84 1173 85 1285 93 416 30 1164 83 841 87 855 34 1047 91 232 90 408 88 835 35 849 38 598
21148 -3.512726946819936 2.2077665111709677 3.3880333719822029 80 64 56 1.8050248701114546 43 806 76 1381 23 1244 77 1459 79 1095 79 1432 81 1361 74 806 27 906 28 1242 28 1683 85 1276 37 550 90 395 88 815
20845 -3.4452026840625423 2.2737045338419448 3.3840899165181919 83 61 54 1.0434576979437271 97 1164 96 668 43 642 76 1057 23 934 79 1105 73 113 88 146 38 135
21657 -1.9795683667488071 1.8250680461237254 5.7381061836487257 11 13 8 0.24934347605159424 94 172 41 163 80 1201
20847 -1.7448738105379491 1.7009598632874363 4.4438221521759447 97 39 8 1.0106440692459422 42 883 94 441 41 196 76 1109 75 1217 23 976 77 954 80 1136 24 916 81 1069 74 510 27 967 28 860 84 917 86 220 85 648 33 516 32 598 31 932 30 978 87 936 34 883 37 645 90 220 88 623 35 628 38 160
21216 -4.4665041505114216 0.5068598763635167 4.6433620262993891 56 61 64 0.76673699552006847 42 1591 43 1188
23789 -3.7244693384236793 2.0681952168395683 3.5412694299618188 90 67 56 0.85073135230973052 42 357 43 300 77 601 81 327 26 746 27 560 28 318 84 515 85 555 33 138 31 862 30 571 83 401 34 507 35 491
20850 -16.451310628211687 2.2935585066176283 7.6104109127928403 0 0 0 1.5276909285721354 101 2520 102 1075 98 1514
20851 -15.208427827864321 2.1207685227345308 5.5354761217627972 54 29 24 0.95419428915083326 95 1316 96 711 94 952 76 1543 75 2286 74 1332 21 1027 20 976
21735 -3.2984330851760766 0.33053526481149398 3.9037801544561974 49 67 74 0.2519790056743394 44 2556 41 914
21729 -1.4133339177376063 2.1284576458395978 3.8299187292001431 30 16 7 2.2501200467648403 58 2775 94 911 41 860
20854 -14.908301058087609 2.2533753978903794 4.490362664080771 18 5 6 1.3427858207984895 99 2171 96 716 41 902 23 1105 21 1022 73 735
23787 -3.8428467232809069 2.0265467531377133 3.5630551163003794 43 31 24 1.2631584280321762 43 391 77 588 79 702 80 666 24 827 81 634 26 727 27 871 28 756 86 411 84 834 85 921 33 742 32 502 30 866 83 608 34 788 87 808
20857 -13.349556119644522 2.6374464462467198 4.7493976253158987 0 0 0 2.1115803866537828 46 1677 98 1535
20858 -15.249478245873172 2.971727538907015 6.187550394357503 0 0 0 1.6886766218135323 54 1604 101 2531
22250 2.6167821991449989 4.006821328154877 14.05606807662069 45 56 59 0.49534068240663642 12 92 13 143 16 504
20859 -15.089444845247602 2.9375657946614271 5.867938123515529 53 28 25 1.3176762828351316 102 896 96 726 75 1970 74 1076 32 1237 31 1552 30 1278 34 1333
20860 -14.258326836768136 3.0337614346216015 2.937481481277934 1 3 1 1.165500043142182 76 1256 75 1964 22 1612 23 1117 79 1343 80 1329 74 1064 21 774 97 2398 69 812 15 755 82 228 71 767 73 993 18 707 20 774 17 232 70 166
21009 -3.507255227706489 2.3002211297195223 3.1325733338602988 43 36 33 1.3861300214622849 95 688 97 1658 89 2971 53 610 96 861 43 668 94 438 76 1055 22 931 23 926 77 895 80 688 24 869 81 662 26 761 27 908 28 347 86 447 84 854 85 951 32 812 31 871 30 892 18 99 35 499
20867 -13.309816457279618 4.7381741373046102 3.8113157467150889 59 33 28 1.7755612292711265 98 1630 96 769 75 2009 83 979
21013 -3.606753367089778 2.1370445489795351 3.2584672161654074 18 16 15 1.1468783547865444 42 1093 96 818 95 923 43 982 94 420 41 605 76 1040 75 1631 22 916 23 912 77 1178 79 713 77 878 80 673 24 851 81 985 26 750 74 789 27 886 28 774 21 554 86 432 84 513 85 549 69 441 68 362 33 418 32 184 31 535 30 575 83 625 87 176 71 610 34 504 73 787 18 584 72 457 20 595 37 540 91 410 90 381 88 505 35 483 38 321
20868 -2.5575793254717571 1.3743888782167788 4.6470029192226887 126 137 147 0.027069747253204202 11 93 96 777
20869 -2.0426530685458175 1.7580290582460223 5.7006019272290169 6 3 1 1.8436379344478815 42 1311 95 1398 96 780 43 960
24087 -1.2507195778432318 2.0718947588588397 3.9664776665638399 86 27 8 0.74754377734500232 22 1037 79 895 26 902 74 303
21524 -2.5708071925572722 1.4288299186993114 5.2160121164074535 5 2 2 1.6267708878023361 95 1750 41 1602 94 1379
21017 -3.8573360306910729 2.2397692335697164 2.9451547178871369 41 35 34 1.6555026048165749 45 1129 9 2008 51 1961 100 2284 52 1474 104 1705 105 1712 78 1909 8 1713 7 1724 60 1915 4 2121 6 1902 58 2512 57 2046 59 1891 65 761 97 2077 97 1644 96 832 42 857 69 107 93 412
21534 -4.2634735718370669 0.42163810473199159 4.6568891338817435 5 3 5 0.76319941278189463 96 1356 94 1430
20873 -3.8122128386909266 1.9839704649177756 3.3989522242141064 89 71 64 1.2006036164130593 42 809 95 896 96 791 43 546 76 1014 75 1145 22 884 23 882 77 852 79 695 80 657 24 823 26 724 27 535 28 745 86 402 84 830 85 526 33 397 32 789 31 841 30 859 83 601 87 798 34 781 91 183 37 505 90 629 38 302
20874 -4.1101409926172332 2.1048875739476318 3.0601680762132264 80 66 57 1.6536907234141467 42 817 96 799 43 765 41 378 76 1005 23 875 77 563 80 645
23576 -1.8270142046256825 1.7134440857135791 4.4183192782408245 53 15 9 0.60985361841333907 76 1696 23 1306 77 1477
23570 -3.8324337367346386 1.9757917003849321 3.2849714017336158 84 70 61 0.9300791876594543 22 1295 23 1208 77 1151 79 1059 24 1086 21 535
20877 -2.0405508044289573 1.7285136240735022 4.5462822405306929 35 9 4 0.73882013977116012 95 941 96 812 43 577 90 432 88 916
21089 -1.550696000176083 1.7612086671006881 4.5367426766408743 82 31 9 1.0755252417541652 42 417 76 1155 22 1009 23 708 77 999 79 841 80 807 24 955 81 432 26 851 74 549 27 664 28 898 86 567 84 962 85 697 33 544 32 628 31 1002 87 993 34 672 37 341 90 241 88 677 35 673
20880 -1.9390868901284848 1.6994767966089854 4.5412432520189379 35 7 3 1.2020704446561319 95 948 96 820 43 782 35 1241
21606 -1.1406095392715114 2.1578805366964962 3.9762624646615503 36 16 13 1.3860608632486529 45 628 42 1205 94 743 1 1056 46 1132 98 1062 44 1871 95 1303 41 706 16 158 75 2170 74 1250 21 936 86 1273 69 178 93 266 71 452 18 460 20 663 91 311 37 722 90 519 88 701 38 482 39 34
20884 -1.6308704300947092 1.7301570599850991 4.4750745345865841 87 32 10 1.2356937945474642 42 895 96 865 43 837 23 1347 77 1295 79 1182 80 1158 24 1240 81 1096 74 527 28 1336 86 821 40 189 90 750 88 995 35 945 38 180
21604 -3.7264329723983782 2.1372397502944329 3.0943497088422642 19 10 10 1.528633371729246 2 2579 14 2042 67 1924 1 1261 48 1516 48 1888 54 762 54 1048 46 1101 45 825 94 645 45 1119 95 1163 74 772
20887 -8.954711190180614 0.8270531863785836 9.3572784477204092 58 63 66 2.2122761529344306 45 1024 96 885
20890 -14.985695313692439 2.4023270995456341 4.261380195674203 15 4 4 1.7608080243889763 99 2393 96 896 20 973
21719 -3.5358728515094771 0.47774018223288378 4.928934584137286 44 58 63 1.2918313728672695 42 1005 41 748 15 528
20900 -12.760799033499138 3.5205546885125947 3.034210727379993 60 36 31 1.6323780642137138 95 1362 96 937 76 1582 22 1968 77 1600 80 1721 97 2704 86 1349 84 1332 85 1725 83 954
20903 -2.0550395733787368 1.7107930786860521 5.642482643002821 36 32 20 0.95142464164498752 42 1529 95 1573 96 960 43 956
21049 -2.9737524511783966 0.64248260541996116 4.0706677221938135 47 40 38 1.7399535695735613 96 250 22 351 23 239 77 174 79 191 80 197 24 143 74 80 84 454 33 53 83 86
23771 -12.612035037541277 -1.9454724286741463 12.141400505060981 81 116 153 2.1297706346963206 76 74 77 440 79 68 80 541 81 553 27 94
20904 -2.1601381918878837 1.6727965452277824 5.0041475579372339 0 0 0 0.44023290924227504 42 1076 95 1154 96 964
22075 -3.4550727654089042 2.6147364081613902 3.1379661638672598 20 13 11 1.615420905572355 42 930 76 1415 74 1164 73 816
22234 2.2340877373559116 4.0388978766458328 13.767676992890978 42 53 54 0.54052384013724664 66 97 16 200
23608 -3.6002684750345368 1.2016333307560458 5.2449572779678633 29 22 21 0.96708215457062308 22 1670 23 1504 77 1665
20907 -3.6583570938721151 2.0811615911283661 3.488694189160003 83 66 57 1.4478397458426626 42 1085 96 979 76 1359 75 2034 22 1694 23 1532 77 1174 79 1422 80 1430 24 1469 81 1349 26 1517 74 786 27 1308 28 1668 43 971 86 1097 84 1455 85 1262 33 1066 31 1371 30 1332 83 1099 87 1395 34 1251 37 1299 90 930 88 1493 35 1404 38 582
21727 -3.5044384597730152 2.1984228306491094 3.4504201146707789 66 63 61 0.9553000935124627 96 985 41 828 40 626 93 410 91 421
20908 -3.7420890482630318 2.1967356487950962 3.0194011508839536 76 59 56 1.3452908391401577 42 1099 97 2440 96 989 75 1164 43 816 22 905 23 905 77 866 74 462 21 551 18 362 72 272 20 74 19 156 91 197 38 313
21212 -2.2412248388223817 0.19857304407444737 5.4323812315086917 40 35 32 0.31184836749292644 96 1145 43 1178
23602 -3.5824438717732106 0.61663231488576475 5.0198838889134629 48 49 52 1.1309033607688848 22 1632 23 1469 77 1405 79 1379 81 1308 24 1409 40 324 76 1612
20909 -1.8055490283465643 1.7388725502492244 4.3659886072549972 44 14 5 1.1952536617271785 42 1110 96 999 43 994 76 1442 23 1319 77 1262 79 1149 24 1213 93 205 88 1240 35 1253
20911 -4.2441958381292357 0.35444043175849532 4.4369725933797737 57 63 62 0.89886704128141481 95 1493 96 1018
22019 -1.743095614707034 1.6757763334059634 4.7246990471593628 97 30 13 0.7487832196006674 42 387 76 777 77 685 23 394 79 811 80 774 24 655 81 746 26 471 74 243 27 641 28 483 21 148 86 536 84 632 33 530 32 315 31 962 87 641 34 646 88 649 35 653
20915 -3.2073234298882189 0.32937776555698162 4.0454642246260963 132 137 145 1.6997330550743868 95 1067 96 1028 68 491
20997 -3.1182183713258178 0.15136399674753589 5.0842596691397484 53 56 56 0.56869683958575279 95 1938 96 1422
24071 -1.9048425963943791 1.8343017051239601 4.2922979374298675 74 39 26 0.93881711770002074 23 1322 79 780 24 909 38 378
20918 -4.6806910581002885 0.94220751057719943 4.5969747158178018 51 57 56 1.6063549766940133 13 1459 96 1051
20919 -4.6806910581002885 0.94220751057719943 4.5969747158178018 51 57 56 1.6063549766940133 13 1458 96 1052
20920 -6.8875364525122 1.937481941466155 6.9590388023249341 48 53 55 0.71284431653612601 98 1758 96 1066
21518 -2.6303250318413753 1.0041579511775143 5.5802533699436943 32 42 50 2.3908161056064374 42 1862 95 1897 94 1364 41 1411
20921 -6.8875364525122 1.937481941466155 6.9590388023249341 48 53 55 0.71284431653612601 98 1757 96 1067
22027 -8.8557435547075389 -2.2748334424305043 13.616558950351989 136 130 117 2.2259658229656645 97 1079 76 892 22 1199
20923 -12.413596696703147 3.4479115887907015 2.4312083318548092 66 44 38 2.2807285813525593 98 1796 96 1080 76 1813 30 1460
20926 -3.9548636632161691 2.0134250377768881 3.5663769883078293 94 73 69 1.5287635674632913 95 1135 96 1100 40 606
21516 -5.2013043781866521 1.5866849999602206 4.5833369321550386 42 48 55 0.404284261467793 95 1808 94 1355 68 1266
20927 -3.8979205186927732 2.3220120314659667 2.9319511563881391 27 19 17 1.6125532407666903 96 1121 40 978 41 1158 93 895 94 1151
21073 -3.6830062935091079 2.1526372635272937 3.0852200307333311 75 63 58 0.70278677295941383 95 445 96 346 43 335 76 342
20928 -17.803083057129463 0.59316804972164627 7.8709279606994222 23 10 11 1.5805064327157621 44 3162 45 1601 46 2022 93 1138 70 555
20930 -5.2160531574645441 0.37025664787020823 4.0341745274735876 52 53 56 2.7322659296460641 42 1580 49 1612 16 1247 75 2523 22 2209 74 1559 21 1293
22317 -1.9191263442040429 1.0335214155649215 6.0817965729375532 38 53 64 0.86656001865309962 42 1665 16 1122 18 901
21596 -1.2307969159866523 2.1720258356367497 3.8606026719824089 101 29 9 1.3356212823470359 14 394 1 723 48 1223 49 719 54 609 46 525 94 271 42 720 95 816 74 314 86 281 87 372 88 358
22326 -1.6493238127383807 -0.25127159387203279 24.539992038499154 20 14 9 0.60731542607885247 16 1245 40 1014
21153 -3.8242467801630275 2.2464037435712561 2.961597690302916 21 14 13 1.3683116555282471 96 835 43 824 41 614 16 417 75 1166 22 907 23 903 77 597 79 279 80 271 24 579 81 313 26 319 74 463 21 301 69 451 93 413 71 379 73 69 18 363 20 76
20950 -2.5250290011613825 0.77076215326676334 5.6881825451536301 0 0 0 1.3104825502702109 64 1485 66 1145 97 2658 98 1724
23348 -3.6948041664178386 0.55291988280808047 4.9340250682572195 4 3 2 1.3296036146867294 75 2991 22 2695 77 2152 79 2597 24 2356
20951 -4.0746628822821771 2.0033813847515196 3.4830484060061297 89 71 63 0.87619716360030164 95 1566 96 1272 41 980 40 974
22325 -1.6513656562115571 -0.24688154898275602 24.558163682881489 20 14 9 0.87827461399782381 16 1244 10 1868 40 1013
20952 -3.0022695208797776 0.2329644116307088 4.0219447677811724 60 65 68 0.0081568655580034326 106 2887 96 1278
22334 -0.46125884315336141 1.799696441855194 18.775765603989953 26 25 24 1.4937555290642808 66 1121 16 1272 40 1100
21161 -3.3956624304739478 2.4676182581991593 3.4612756558814208 22 11 8 1.2252190456023511 42 910 43 864 76 1409 75 1670 22 1726 23 1282 77 1470 79 1463 80 1463 24 1489 81 1382 26 2041 74 1161 27 1780 28 1713 21 869 86 1124 84 1474 85 1288 30 1361 83 1112 73 818 18 613 20 634 37 914 90 420
21678 -2.8184105397720303 0.99095121862835889 4.0687289110442322 49 65 73 1.7006542562292046 43 513 77 837 80 235 41 351 86 387
20953 -5.3515732873480388 0.70290019441499352 4.1971653940057934 48 53 55 0.926503943278015 95 1776 96 1279 94 1308
20958 -5.0222594498338813 1.0356753295653323 4.4995796728344848 49 52 54 1.7343623710402758 42 1752 96 1290 69 1499 15 1354
21622 -2.3052253261433089 0.96572620887634353 5.3499250347054694 56 63 56 2.2950992027786001 42 1660 94 1130 69 815
